ply
format ascii 1.0
comment created by PLYWriter
element vertex 2083
property float x
property float y
property float z
end_header
0.44 0.6622483 0.71999884 
0.44 0.64224833 0.71999884 
0.46 0.64224833 0.71999884 
0.46 0.6622483 0.73999316 
0.44 0.6622483 0.73999316 
0.44 0.64224833 0.73999316 
0.46 0.64224833 0.73999316 
0.46 0.6622483 0.75996846 
0.44 0.6622483 0.75996846 
0.44 0.64224833 0.75996846 
0.46 0.64224833 0.75996846 
0.46 0.6622483 0.7798754 
0.44 0.6622483 0.7798754 
0.46 0.6622483 0.79962456 
0.44 0.6622483 0.79962456 
0.44 0.64224833 0.7798754 
0.46 0.64224833 0.7798754 
0.44 0.64224833 0.79962456 
0.46 0.64224833 0.79962456 
0.44 0.70224833 0.20037544 
0.44 0.70224833 0.2201247 
0.46 0.6822483 0.20037544 
0.46 0.6822483 0.2201247 
0.44 0.6822483 0.20037544 
0.44 0.6822483 0.2201247 
0.46 0.70224833 0.20037544 
0.46 0.70224833 0.2201247 
0.46 0.6822483 0.24003163 
0.46 0.6822483 0.26000693 
0.44 0.6822483 0.24003163 
0.44 0.6822483 0.26000693 
0.44 0.70224833 0.24003163 
0.44 0.70224833 0.26000693 
0.46 0.70224833 0.24003163 
0.46 0.70224833 0.26000693 
0.46 0.6822483 0.28000125 
0.46 0.6822483 0.3000002 
0.44 0.6822483 0.28000125 
0.44 0.6822483 0.3000002 
0.44 0.70224833 0.28000125 
0.44 0.70224833 0.3000002 
0.46 0.70224833 0.28000125 
0.46 0.70224833 0.3000002 
0.46 0.6822483 0.32 
0.46 0.6822483 0.34 
0.44 0.6822483 0.32 
0.44 0.6822483 0.34 
0.44 0.70224833 0.32 
0.44 0.70224833 0.34 
0.46 0.70224833 0.32 
0.46 0.70224833 0.34 
0.44 0.70224833 0.36 
0.44 0.70224833 0.38 
0.46 0.70224833 0.36 
0.46 0.70224833 0.38 
0.46 0.6822483 0.36 
0.46 0.6822483 0.38 
0.44 0.6822483 0.36 
0.44 0.6822483 0.38 
0.44 0.70224833 0.4 
0.44 0.70224833 0.42 
0.46 0.70224833 0.4 
0.46 0.70224833 0.42 
0.46 0.6822483 0.4 
0.46 0.6822483 0.42 
0.44 0.6822483 0.4 
0.44 0.6822483 0.42 
0.44 0.70224833 0.44 
0.44 0.70224833 0.46 
0.46 0.70224833 0.44 
0.46 0.70224833 0.46 
0.46 0.6822483 0.44 
0.46 0.6822483 0.46 
0.44 0.6822483 0.44 
0.44 0.6822483 0.46 
0.44 0.70224833 0.48 
0.44 0.70224833 0.5 
0.46 0.70224833 0.48 
0.46 0.70224833 0.5 
0.46 0.6822483 0.48 
0.46 0.6822483 0.5 
0.44 0.6822483 0.48 
0.44 0.6822483 0.5 
0.44 0.70224833 0.52 
0.44 0.70224833 0.54 
0.46 0.70224833 0.52 
0.46 0.70224833 0.54 
0.46 0.6822483 0.52 
0.46 0.6822483 0.54 
0.44 0.6822483 0.52 
0.44 0.6822483 0.54 
0.44 0.70224833 0.56 
0.44 0.70224833 0.58 
0.46 0.70224833 0.56 
0.46 0.70224833 0.58 
0.46 0.6822483 0.58 
0.46 0.6822483 0.56 
0.44 0.6822483 0.56 
0.44 0.6822483 0.58 
0.44 0.70224833 0.6 
0.44 0.70224833 0.62 
0.46 0.70224833 0.6 
0.46 0.70224833 0.62 
0.44 0.6822483 0.62 
0.46 0.6822483 0.6 
0.46 0.6822483 0.62 
0.44 0.6822483 0.6 
0.44 0.70224833 0.64 
0.44 0.70224833 0.66 
0.46 0.70224833 0.64 
0.46 0.70224833 0.66 
0.44 0.6822483 0.64 
0.44 0.6822483 0.66 
0.46 0.6822483 0.64 
0.46 0.6822483 0.66 
0.46 0.6822483 0.7 
0.44 0.6822483 0.68 
0.46 0.70224833 0.68 
0.44 0.70224833 0.7 
0.44 0.70224833 0.71999884 
0.46 0.70224833 0.71999884 
0.44 0.6822483 0.7 
0.46 0.6822483 0.68 
0.46 0.70224833 0.7 
0.46 0.6822483 0.71999884 
0.44 0.6822483 0.71999884 
0.44 0.70224833 0.68 
0.44 0.70224833 0.73999316 
0.46 0.70224833 0.73999316 
0.44 0.6822483 0.73999316 
0.46 0.6822483 0.73999316 
0.44 0.70224833 0.75996846 
0.46 0.70224833 0.75996846 
0.44 0.6822483 0.75996846 
0.46 0.6822483 0.75996846 
0.44 0.70224833 0.7798754 
0.46 0.70224833 0.7798754 
0.44 0.70224833 0.79962456 
0.46 0.70224833 0.79962456 
0.44 0.6822483 0.7798754 
0.46 0.6822483 0.7798754 
0.44 0.6822483 0.79962456 
0.46 0.6822483 0.79962456 
0.44 0.7422483 0.20037544 
0.44 0.7422483 0.2201247 
0.46 0.7422483 0.20037544 
0.46 0.7422483 0.2201247 
0.46 0.7222483 0.20037544 
0.46 0.7222483 0.2201247 
0.44 0.7222483 0.20037544 
0.44 0.7222483 0.2201247 
0.46 0.7422483 0.24003163 
0.46 0.7422483 0.26000693 
0.44 0.7422483 0.24003163 
0.44 0.7422483 0.26000693 
0.44 0.7222483 0.24003163 
0.44 0.7222483 0.26000693 
0.46 0.7222483 0.24003163 
0.46 0.7222483 0.26000693 
0.44 0.7422483 0.28000125 
0.44 0.7422483 0.3000002 
0.46 0.7422483 0.28000125 
0.46 0.7422483 0.3000002 
0.44 0.7222483 0.28000125 
0.44 0.7222483 0.3000002 
0.46 0.7222483 0.28000125 
0.46 0.7222483 0.3000002 
0.44 0.7422483 0.32 
0.44 0.7422483 0.34 
0.46 0.7422483 0.32 
0.46 0.7422483 0.34 
0.44 0.7222483 0.32 
0.44 0.7222483 0.34 
0.46 0.7222483 0.32 
0.46 0.7222483 0.34 
0.44 0.7422483 0.36 
0.44 0.7422483 0.38 
0.46 0.7422483 0.36 
0.46 0.7422483 0.38 
0.44 0.7222483 0.36 
0.44 0.7222483 0.38 
0.46 0.7222483 0.36 
0.46 0.7222483 0.38 
0.44 0.7422483 0.4 
0.44 0.7422483 0.42 
0.46 0.7422483 0.4 
0.46 0.7422483 0.42 
0.44 0.7222483 0.4 
0.44 0.7222483 0.42 
0.46 0.7222483 0.4 
0.46 0.7222483 0.42 
0.44 0.7422483 0.44 
0.44 0.7422483 0.46 
0.46 0.7422483 0.44 
0.46 0.7422483 0.46 
0.44 0.7222483 0.44 
0.44 0.7222483 0.46 
0.46 0.7222483 0.44 
0.46 0.7222483 0.46 
0.44 0.7422483 0.48 
0.44 0.7422483 0.5 
0.46 0.7422483 0.48 
0.46 0.7422483 0.5 
0.44 0.7222483 0.48 
0.44 0.7222483 0.5 
0.46 0.7222483 0.48 
0.46 0.7222483 0.5 
0.44 0.7422483 0.52 
0.44 0.7422483 0.54 
0.46 0.7422483 0.52 
0.46 0.7422483 0.54 
0.46 0.7222483 0.52 
0.46 0.7222483 0.54 
0.44 0.7222483 0.52 
0.44 0.7222483 0.54 
0.44 0.7422483 0.56 
0.44 0.7422483 0.58 
0.46 0.7422483 0.56 
0.46 0.7422483 0.58 
0.44 0.7222483 0.56 
0.44 0.7222483 0.58 
0.46 0.7222483 0.56 
0.46 0.7222483 0.58 
0.44 0.7422483 0.6 
0.44 0.7422483 0.62 
0.46 0.7422483 0.6 
0.46 0.7422483 0.62 
0.44 0.7222483 0.6 
0.44 0.7222483 0.62 
0.46 0.7222483 0.6 
0.46 0.7222483 0.62 
0.44 0.7422483 0.64 
0.44 0.7422483 0.66 
0.46 0.7422483 0.64 
0.46 0.7422483 0.66 
0.44 0.7222483 0.66 
0.44 0.7222483 0.64 
0.46 0.7222483 0.64 
0.46 0.7222483 0.66 
0.44 0.7222483 0.71999884 
0.46 0.7222483 0.71999884 
0.44 0.7422483 0.71999884 
0.46 0.7422483 0.71999884 
0.46 0.7222483 0.68 
0.46 0.7222483 0.7 
0.44 0.7422483 0.68 
0.44 0.7422483 0.7 
0.46 0.7422483 0.68 
0.46 0.7422483 0.7 
0.44 0.7222483 0.68 
0.44 0.7222483 0.7 
0.44 0.7222483 0.73999316 
0.46 0.7222483 0.73999316 
0.44 0.7422483 0.73999316 
0.46 0.7422483 0.73999316 
0.44 0.7222483 0.75996846 
0.46 0.7222483 0.75996846 
0.44 0.7422483 0.75996846 
0.46 0.7422483 0.75996846 
0.44 0.7222483 0.7798754 
0.46 0.7222483 0.7798754 
0.44 0.7222483 0.79962456 
0.46 0.7222483 0.79962456 
0.44 0.7422483 0.7798754 
0.46 0.7422483 0.7798754 
0.44 0.7422483 0.79962456 
0.46 0.7422483 0.79962456 
0.44 0.7622483 0.20037544 
0.44 0.7622483 0.2201247 
0.46 0.7622483 0.20037544 
0.46 0.7622483 0.2201247 
0.44 0.7822483 0.20037544 
0.44 0.7822483 0.2201247 
0.46 0.7822483 0.20037544 
0.46 0.7822483 0.2201247 
0.44 0.7622483 0.24003163 
0.44 0.7622483 0.26000693 
0.46 0.7822483 0.24003163 
0.46 0.7822483 0.26000693 
0.46 0.7622483 0.24003163 
0.46 0.7622483 0.26000693 
0.44 0.7822483 0.24003163 
0.44 0.7822483 0.26000693 
0.44 0.7822483 0.28000125 
0.44 0.7822483 0.3000002 
0.46 0.7822483 0.28000125 
0.46 0.7822483 0.3000002 
0.44 0.7622483 0.28000125 
0.44 0.7622483 0.3000002 
0.46 0.7622483 0.28000125 
0.46 0.7622483 0.3000002 
0.44 0.7822483 0.32 
0.44 0.7822483 0.34 
0.46 0.7822483 0.32 
0.46 0.7822483 0.34 
0.44 0.7622483 0.32 
0.44 0.7622483 0.34 
0.46 0.7622483 0.32 
0.46 0.7622483 0.34 
0.44 0.7822483 0.36 
0.44 0.7822483 0.38 
0.46 0.7822483 0.36 
0.46 0.7822483 0.38 
0.44 0.7622483 0.36 
0.44 0.7622483 0.38 
0.46 0.7622483 0.36 
0.46 0.7622483 0.38 
0.44 0.7822483 0.4 
0.44 0.7822483 0.42 
0.46 0.7822483 0.4 
0.46 0.7822483 0.42 
0.44 0.7622483 0.4 
0.44 0.7622483 0.42 
0.46 0.7622483 0.4 
0.46 0.7622483 0.42 
0.44 0.7622483 0.44 
0.44 0.7622483 0.46 
0.46 0.7622483 0.44 
0.46 0.7622483 0.46 
0.44 0.7822483 0.44 
0.44 0.7822483 0.46 
0.46 0.7822483 0.44 
0.46 0.7822483 0.46 
0.44 0.7622483 0.48 
0.44 0.7622483 0.5 
0.46 0.7622483 0.48 
0.46 0.7622483 0.5 
0.44 0.7822483 0.48 
0.44 0.7822483 0.5 
0.46 0.7822483 0.48 
0.46 0.7822483 0.5 
0.44 0.7622483 0.52 
0.44 0.7622483 0.54 
0.46 0.7622483 0.52 
0.46 0.7622483 0.54 
0.44 0.7822483 0.52 
0.44 0.7822483 0.54 
0.46 0.7822483 0.52 
0.46 0.7822483 0.54 
0.44 0.7622483 0.56 
0.44 0.7622483 0.58 
0.46 0.7622483 0.56 
0.46 0.7622483 0.58 
0.46 0.7822483 0.56 
0.46 0.7822483 0.58 
0.44 0.7822483 0.56 
0.44 0.7822483 0.58 
0.44 0.7622483 0.6 
0.44 0.7622483 0.62 
0.46 0.7622483 0.6 
0.46 0.7622483 0.62 
0.44 0.7822483 0.6 
0.44 0.7822483 0.62 
0.46 0.7822483 0.6 
0.46 0.7822483 0.62 
0.44 0.7622483 0.64 
0.44 0.7622483 0.66 
0.46 0.7622483 0.64 
0.46 0.7622483 0.66 
0.44 0.7822483 0.64 
0.44 0.7822483 0.66 
0.46 0.7822483 0.64 
0.46 0.7822483 0.66 
0.44 0.7622483 0.7 
0.44 0.7622483 0.68 
0.46 0.7622483 0.68 
0.46 0.7622483 0.7 
0.44 0.7822483 0.68 
0.44 0.7822483 0.7 
0.46 0.7822483 0.68 
0.46 0.7822483 0.7 
0.46 0.7622483 0.71999884 
0.44 0.7622483 0.71999884 
0.44 0.7822483 0.71999884 
0.46 0.7822483 0.71999884 
0.44 0.7622483 0.75996846 
0.46 0.7622483 0.75996846 
0.46 0.7622483 0.73999316 
0.44 0.7622483 0.73999316 
0.44 0.7822483 0.73999316 
0.44 0.7822483 0.75996846 
0.46 0.7822483 0.73999316 
0.46 0.7822483 0.75996846 
0.44 0.7822483 0.7798754 
0.46 0.7822483 0.7798754 
0.44 0.7822483 0.79962456 
0.46 0.7822483 0.79962456 
0.44 0.7622483 0.7798754 
0.46 0.7622483 0.7798754 
0.44 0.7622483 0.79962456 
0.46 0.7622483 0.79962456 
0.44 0.8222483 0.20037544 
0.44 0.8222483 0.2201247 
0.46 0.8222483 0.20037544 
0.46 0.8222483 0.2201247 
0.44 0.8022483 0.20037544 
0.44 0.8022483 0.2201247 
0.46 0.8022483 0.20037544 
0.46 0.8022483 0.2201247 
0.44 0.8222483 0.24003163 
0.44 0.8222483 0.26000693 
0.46 0.8222483 0.24003163 
0.46 0.8222483 0.26000693 
0.46 0.8022483 0.24003163 
0.46 0.8022483 0.26000693 
0.44 0.8022483 0.24003163 
0.44 0.8022483 0.26000693 
0.44 0.8022483 0.28000125 
0.44 0.8022483 0.3000002 
0.46 0.8022483 0.28000125 
0.46 0.8022483 0.3000002 
0.46 0.8222483 0.28000125 
0.46 0.8222483 0.3000002 
0.44 0.8222483 0.28000125 
0.44 0.8222483 0.3000002 
0.44 0.8022483 0.32 
0.44 0.8022483 0.34 
0.46 0.8022483 0.32 
0.46 0.8022483 0.34 
0.44 0.8222483 0.32 
0.44 0.8222483 0.34 
0.46 0.8222483 0.32 
0.46 0.8222483 0.34 
0.44 0.8022483 0.36 
0.44 0.8022483 0.38 
0.46 0.8022483 0.36 
0.46 0.8022483 0.38 
0.44 0.8222483 0.36 
0.44 0.8222483 0.38 
0.46 0.8222483 0.36 
0.46 0.8222483 0.38 
0.44 0.8022483 0.4 
0.44 0.8022483 0.42 
0.44 0.8222483 0.4 
0.44 0.8222483 0.42 
0.46 0.8222483 0.4 
0.46 0.8222483 0.42 
0.46 0.8022483 0.4 
0.46 0.8022483 0.42 
0.44 0.8222483 0.44 
0.44 0.8222483 0.46 
0.46 0.8222483 0.44 
0.46 0.8222483 0.46 
0.44 0.8022483 0.44 
0.44 0.8022483 0.46 
0.46 0.8022483 0.44 
0.46 0.8022483 0.46 
0.44 0.8222483 0.48 
0.44 0.8222483 0.5 
0.46 0.8222483 0.48 
0.46 0.8222483 0.5 
0.44 0.8022483 0.48 
0.44 0.8022483 0.5 
0.46 0.8022483 0.48 
0.46 0.8022483 0.5 
0.44 0.8222483 0.52 
0.44 0.8222483 0.54 
0.46 0.8222483 0.52 
0.46 0.8222483 0.54 
0.44 0.8022483 0.52 
0.44 0.8022483 0.54 
0.46 0.8022483 0.52 
0.46 0.8022483 0.54 
0.44 0.8222483 0.56 
0.44 0.8222483 0.58 
0.46 0.8222483 0.56 
0.46 0.8222483 0.58 
0.46 0.8022483 0.56 
0.46 0.8022483 0.58 
0.44 0.8022483 0.56 
0.44 0.8022483 0.58 
0.44 0.8022483 0.6 
0.44 0.8022483 0.62 
0.46 0.8022483 0.6 
0.46 0.8022483 0.62 
0.44 0.8222483 0.6 
0.44 0.8222483 0.62 
0.46 0.8222483 0.6 
0.46 0.8222483 0.62 
0.44 0.8022483 0.64 
0.44 0.8022483 0.66 
0.46 0.8022483 0.64 
0.46 0.8022483 0.66 
0.44 0.8222483 0.64 
0.44 0.8222483 0.66 
0.46 0.8222483 0.64 
0.46 0.8222483 0.66 
0.44 0.8022483 0.68 
0.44 0.8022483 0.7 
0.46 0.8022483 0.68 
0.46 0.8022483 0.7 
0.44 0.8222483 0.68 
0.44 0.8222483 0.7 
0.46 0.8222483 0.68 
0.46 0.8222483 0.7 
0.44 0.8222483 0.71999884 
0.46 0.8222483 0.71999884 
0.46 0.8022483 0.71999884 
0.44 0.8022483 0.71999884 
0.44 0.8222483 0.73999316 
0.46 0.8222483 0.73999316 
0.44 0.8022483 0.75996846 
0.46 0.8022483 0.75996846 
0.44 0.8222483 0.75996846 
0.46 0.8222483 0.75996846 
0.46 0.8022483 0.73999316 
0.44 0.8022483 0.73999316 
0.44 0.8022483 0.7798754 
0.46 0.8022483 0.7798754 
0.44 0.8022483 0.79962456 
0.46 0.8022483 0.79962456 
0.44 0.8222483 0.7798754 
0.46 0.8222483 0.7798754 
0.44 0.8222483 0.79962456 
0.46 0.8222483 0.79962456 
0.44 0.8422483 0.20037544 
0.44 0.8422483 0.2201247 
0.46 0.8422483 0.20037544 
0.46 0.8422483 0.2201247 
0.44 0.8622482 0.20037542 
0.44 0.8622482 0.2201247 
0.46 0.8622482 0.20037542 
0.46 0.8622482 0.2201247 
0.44 0.8422483 0.24003163 
0.44 0.8422483 0.26000693 
0.46 0.8422483 0.24003163 
0.46 0.8422483 0.26000693 
0.44 0.8622482 0.24003163 
0.44 0.8622482 0.26000693 
0.46 0.8622482 0.24003163 
0.46 0.8622482 0.26000693 
0.46 0.8422483 0.28000125 
0.46 0.8422483 0.3000002 
0.44 0.8422483 0.28000125 
0.44 0.8422483 0.3000002 
0.46 0.8622482 0.28000125 
0.46 0.8622482 0.3000002 
0.44 0.8622482 0.28000125 
0.44 0.8622482 0.3000002 
0.44 0.8422483 0.32 
0.44 0.8422483 0.34 
0.46 0.8422483 0.32 
0.46 0.8422483 0.34 
0.44 0.8622482 0.32 
0.44 0.8622482 0.34 
0.46 0.8622482 0.32 
0.46 0.8622482 0.34 
0.44 0.8422483 0.36 
0.44 0.8422483 0.38 
0.46 0.8422483 0.36 
0.46 0.8422483 0.38 
0.44 0.8622482 0.36 
0.44 0.8622482 0.38 
0.46 0.8622482 0.36 
0.46 0.8622482 0.38 
0.44 0.8422483 0.4 
0.44 0.8422483 0.42 
0.46 0.8422483 0.4 
0.46 0.8422483 0.42 
0.44 0.8622482 0.4 
0.44 0.8622482 0.42 
0.46 0.8622482 0.4 
0.46 0.8622482 0.42 
0.44 0.8422483 0.44 
0.44 0.8422483 0.46 
0.46 0.8422483 0.44 
0.46 0.8422483 0.46 
0.46 0.8622482 0.44 
0.46 0.8622482 0.46 
0.44 0.8622482 0.44 
0.44 0.8622482 0.46 
0.44 0.8422483 0.48 
0.44 0.8422483 0.5 
0.46 0.8422483 0.48 
0.46 0.8422483 0.5 
0.44 0.8622482 0.48 
0.44 0.8622482 0.5 
0.46 0.8622482 0.48 
0.46 0.8622482 0.5 
0.44 0.8422483 0.52 
0.44 0.8422483 0.54 
0.46 0.8422483 0.52 
0.46 0.8422483 0.54 
0.44 0.8622482 0.52 
0.44 0.8622482 0.54 
0.46 0.8622482 0.52 
0.46 0.8622482 0.54 
0.44 0.8422483 0.56 
0.44 0.8422483 0.58 
0.46 0.8422483 0.56 
0.46 0.8422483 0.58 
0.44 0.8622482 0.56 
0.44 0.8622482 0.58 
0.46 0.8622482 0.56 
0.46 0.8622482 0.58 
0.46 0.8422483 0.6 
0.46 0.8422483 0.62 
0.44 0.8422483 0.6 
0.44 0.8422483 0.62 
0.44 0.8622482 0.6 
0.44 0.8622482 0.62 
0.46 0.8622482 0.6 
0.46 0.8622482 0.62 
0.44 0.8422483 0.64 
0.44 0.8422483 0.66 
0.46 0.8422483 0.64 
0.46 0.8422483 0.66 
0.44 0.8622482 0.64 
0.44 0.8622482 0.66 
0.46 0.8622482 0.64 
0.46 0.8622482 0.66 
0.44 0.8422483 0.68 
0.44 0.8422483 0.7 
0.46 0.8422483 0.68 
0.46 0.8422483 0.7 
0.44 0.8622482 0.68 
0.44 0.8622482 0.7 
0.46 0.8622482 0.68 
0.46 0.8622482 0.7 
0.44 0.8422483 0.71999884 
0.46 0.8422483 0.71999884 
0.44 0.8622482 0.71999884 
0.46 0.8622482 0.71999884 
0.46 0.8422483 0.75996846 
0.44 0.8622482 0.75996846 
0.46 0.8622482 0.75996846 
0.44 0.8422483 0.73999316 
0.46 0.8422483 0.73999316 
0.44 0.8622482 0.73999316 
0.46 0.8622482 0.73999316 
0.44 0.8422483 0.75996846 
0.46 0.8422483 0.7798754 
0.44 0.8622482 0.7798754 
0.44 0.8422483 0.79962456 
0.46 0.8422483 0.79962456 
0.46 0.8622482 0.7798754 
0.44 0.8422483 0.7798754 
0.44 0.8622482 0.79962456 
0.46 0.8622482 0.79962456 
0.44 0.8822472 0.20037527 
0.44 0.8822472 0.2201247 
0.46 0.8822472 0.20037527 
0.44 0.9022418 0.20037471 
0.46 0.8822472 0.2201247 
0.44 0.9022419 0.22012456 
0.46 0.9022418 0.20037471 
0.46 0.9022419 0.22012456 
0.44 0.8822472 0.24003163 
0.44 0.8822472 0.26000693 
0.46 0.8822472 0.24003163 
0.44 0.9022418 0.24003157 
0.46 0.8822472 0.26000693 
0.44 0.90224177 0.2600069 
0.46 0.9022418 0.24003157 
0.46 0.90224177 0.2600069 
0.46 0.8822472 0.28000125 
0.46 0.8822472 0.3000002 
0.44 0.8822472 0.28000125 
0.44 0.9022417 0.28000125 
0.44 0.8822472 0.3000002 
0.44 0.9022417 0.3000002 
0.46 0.9022417 0.28000125 
0.46 0.9022417 0.3000002 
0.46 0.9022417 0.32 
0.46 0.9022417 0.34 
0.44 0.9022417 0.32 
0.44 0.9022417 0.34 
0.44 0.8822472 0.32 
0.44 0.8822472 0.34 
0.46 0.8822472 0.32 
0.46 0.8822472 0.34 
0.44 0.9022417 0.36 
0.44 0.9022417 0.38 
0.46 0.9022417 0.36 
0.46 0.9022417 0.38 
0.44 0.8822472 0.36 
0.44 0.8822472 0.38 
0.46 0.8822472 0.36 
0.46 0.8822472 0.38 
0.44 0.9022417 0.4 
0.44 0.9022417 0.42 
0.46 0.9022417 0.4 
0.46 0.9022417 0.42 
0.44 0.8822472 0.4 
0.44 0.8822472 0.42 
0.46 0.8822472 0.4 
0.46 0.8822472 0.42 
0.44 0.9022417 0.44 
0.44 0.9022417 0.46 
0.46 0.9022417 0.44 
0.46 0.9022417 0.46 
0.44 0.8822472 0.44 
0.44 0.8822472 0.46 
0.46 0.8822472 0.44 
0.46 0.8822472 0.46 
0.44 0.9022417 0.48 
0.44 0.9022417 0.5 
0.46 0.9022417 0.48 
0.46 0.9022417 0.5 
0.44 0.8822472 0.48 
0.44 0.8822472 0.5 
0.46 0.8822472 0.48 
0.46 0.8822472 0.5 
0.44 0.9022417 0.52 
0.44 0.9022417 0.54 
0.46 0.9022417 0.52 
0.46 0.9022417 0.54 
0.44 0.8822472 0.52 
0.44 0.8822472 0.54 
0.46 0.8822472 0.52 
0.46 0.8822472 0.54 
0.44 0.9022417 0.56 
0.44 0.9022417 0.58 
0.46 0.9022417 0.56 
0.46 0.9022417 0.58 
0.44 0.8822472 0.56 
0.44 0.8822472 0.58 
0.46 0.8822472 0.56 
0.46 0.8822472 0.58 
0.44 0.9022417 0.6 
0.44 0.9022417 0.62 
0.46 0.9022417 0.6 
0.46 0.9022417 0.62 
0.44 0.8822472 0.6 
0.44 0.8822472 0.62 
0.46 0.8822472 0.6 
0.46 0.8822472 0.62 
0.44 0.9022417 0.64 
0.44 0.9022417 0.66 
0.46 0.9022417 0.64 
0.46 0.9022417 0.66 
0.44 0.8822472 0.64 
0.44 0.8822472 0.66 
0.46 0.8822472 0.64 
0.46 0.8822472 0.66 
0.44 0.9022417 0.68 
0.44 0.9022417 0.7 
0.46 0.9022417 0.68 
0.46 0.9022417 0.7 
0.44 0.8822472 0.68 
0.44 0.8822472 0.7 
0.46 0.8822472 0.68 
0.46 0.8822472 0.7 
0.44 0.9022417 0.71999884 
0.46 0.9022417 0.71999884 
0.44 0.8822472 0.71999884 
0.46 0.8822472 0.71999884 
0.46 0.8822472 0.75996846 
0.44 0.90224177 0.73999316 
0.46 0.90224177 0.73999316 
0.44 0.8822472 0.73999316 
0.46 0.8822472 0.73999316 
0.44 0.8822472 0.75996846 
0.44 0.9022418 0.75996846 
0.46 0.9022418 0.75996846 
0.44 0.9022418 0.79962534 
0.46 0.8822472 0.7798754 
0.44 0.8822472 0.7996246 
0.46 0.8822472 0.7996246 
0.44 0.8822472 0.7798754 
0.46 0.9022418 0.79962534 
0.44 0.9022419 0.7798755 
0.46 0.9022419 0.7798755 
0.44 0.9222189 0.20037179 
0.44 0.9222182 0.2201237 
0.46 0.9222189 0.20037179 
0.46 0.9222182 0.2201237 
0.44 0.9421367 0.20035882 
0.44 0.9421287 0.2201199 
0.46 0.9421367 0.20035882 
0.46 0.9421287 0.2201199 
0.44 0.9222171 0.24003123 
0.44 0.92221695 0.26000682 
0.46 0.9222171 0.24003123 
0.46 0.92221695 0.26000682 
0.44 0.94212484 0.24003036 
0.44 0.942124 0.26000658 
0.46 0.94212484 0.24003036 
0.46 0.942124 0.26000658 
0.44 0.92221695 0.28000122 
0.44 0.92221695 0.3000002 
0.46 0.92221695 0.28000122 
0.46 0.92221695 0.3000002 
0.44 0.94212383 0.28000122 
0.44 0.9421238 0.3000002 
0.46 0.94212383 0.28000122 
0.46 0.9421238 0.3000002 
0.46 0.92221695 0.32 
0.46 0.92221695 0.34 
0.44 0.92221695 0.32 
0.44 0.92221695 0.34 
0.46 0.9421238 0.32 
0.46 0.9421238 0.34 
0.44 0.9421238 0.32 
0.44 0.9421238 0.34 
0.44 0.9421238 0.36 
0.44 0.9421238 0.38 
0.46 0.9421238 0.36 
0.46 0.9421238 0.38 
0.44 0.92221695 0.36 
0.44 0.92221695 0.38 
0.46 0.92221695 0.36 
0.46 0.92221695 0.38 
0.44 0.9421238 0.4 
0.44 0.9421238 0.42 
0.46 0.9421238 0.4 
0.46 0.9421238 0.42 
0.44 0.92221695 0.4 
0.44 0.92221695 0.42 
0.46 0.92221695 0.4 
0.46 0.92221695 0.42 
0.44 0.9421238 0.44 
0.44 0.9421238 0.46 
0.46 0.9421238 0.44 
0.46 0.9421238 0.46 
0.44 0.92221695 0.44 
0.44 0.92221695 0.46 
0.46 0.92221695 0.44 
0.46 0.92221695 0.46 
0.44 0.92221695 0.48 
0.44 0.92221695 0.5 
0.46 0.92221695 0.48 
0.46 0.92221695 0.5 
0.46 0.9421238 0.48 
0.46 0.9421238 0.5 
0.44 0.9421238 0.48 
0.44 0.9421238 0.5 
0.44 0.92221695 0.52 
0.44 0.92221695 0.54 
0.46 0.92221695 0.52 
0.46 0.92221695 0.54 
0.44 0.9421238 0.52 
0.44 0.9421238 0.54 
0.46 0.9421238 0.52 
0.46 0.9421238 0.54 
0.44 0.92221695 0.56 
0.44 0.92221695 0.58 
0.46 0.92221695 0.56 
0.46 0.92221695 0.58 
0.44 0.9421238 0.56 
0.44 0.9421238 0.58 
0.46 0.9421238 0.56 
0.46 0.9421238 0.58 
0.44 0.92221695 0.6 
0.44 0.92221695 0.62 
0.46 0.92221695 0.6 
0.46 0.92221695 0.62 
0.44 0.9421238 0.6 
0.44 0.9421238 0.62 
0.46 0.9421238 0.6 
0.46 0.9421238 0.62 
0.46 0.9421238 0.64 
0.46 0.9421238 0.66 
0.44 0.9421238 0.64 
0.44 0.9421238 0.66 
0.44 0.92221695 0.64 
0.44 0.92221695 0.66 
0.46 0.92221695 0.64 
0.46 0.92221695 0.66 
0.44 0.9421238 0.68 
0.44 0.9421238 0.7 
0.44 0.92221695 0.68 
0.44 0.92221695 0.7 
0.46 0.9421238 0.68 
0.46 0.9421238 0.7 
0.46 0.92221695 0.68 
0.46 0.92221695 0.7 
0.44 0.94212383 0.7199989 
0.44 0.92221695 0.71999884 
0.46 0.94212383 0.7199989 
0.46 0.92221695 0.71999884 
0.44 0.942124 0.73999333 
0.44 0.92221695 0.7399933 
0.46 0.942124 0.73999333 
0.46 0.92221695 0.7399933 
0.44 0.94212484 0.7599698 
0.46 0.94212484 0.7599698 
0.44 0.92221713 0.7599688 
0.46 0.92221713 0.7599688 
0.44 0.9421287 0.77988017 
0.46 0.9421287 0.77988017 
0.44 0.9222182 0.7798765 
0.44 0.9421367 0.79964095 
0.46 0.9421367 0.79964095 
0.46 0.9222182 0.7798765 
0.44 0.9222189 0.7996282 
0.46 0.9222189 0.7996282 
0.44 0.96193075 0.20031792 
0.44 0.9618897 0.2201119 
0.46 0.9618897 0.2201119 
0.46 0.96193075 0.20031792 
0.44 0.961874 0.2600067 
0.44 0.9618771 0.24002963 
0.46 0.9618771 0.24002963 
0.46 0.961874 0.2600067 
0.44 0.96187335 0.2800013 
0.44 0.9618731 0.3000002 
0.46 0.96187335 0.2800013 
0.46 0.9618731 0.3000002 
0.46 0.9618731 0.32 
0.46 0.9618731 0.34 
0.44 0.9618731 0.32 
0.44 0.9618731 0.34 
0.44 0.9618731 0.36 
0.44 0.9618731 0.38 
0.46 0.9618731 0.36 
0.46 0.9618731 0.38 
0.44 0.9618731 0.4 
0.44 0.9618731 0.42 
0.46 0.9618731 0.4 
0.46 0.9618731 0.42 
0.44 0.9618731 0.44 
0.44 0.9618731 0.46 
0.46 0.9618731 0.44 
0.46 0.9618731 0.46 
0.44 0.9618731 0.48 
0.44 0.9618731 0.5 
0.46 0.9618731 0.48 
0.46 0.9618731 0.5 
0.44 0.9618731 0.52 
0.44 0.9618731 0.54 
0.46 0.9618731 0.52 
0.46 0.9618731 0.54 
0.44 0.9618731 0.56 
0.44 0.9618731 0.58 
0.46 0.9618731 0.56 
0.46 0.9618731 0.58 
0.44 0.9618731 0.6 
0.44 0.9618731 0.62 
0.46 0.9618731 0.6 
0.46 0.9618731 0.62 
0.46 0.9618731 0.64 
0.46 0.9618731 0.66 
0.44 0.9618731 0.64 
0.44 0.9618731 0.66 
0.44 0.9618731 0.68 
0.44 0.9618731 0.6999999 
0.46 0.9618731 0.68 
0.46 0.9618731 0.6999999 
0.44 0.96187335 0.7199988 
0.46 0.96187335 0.7199988 
0.44 0.961874 0.73999333 
0.46 0.961874 0.73999333 
0.44 0.9618771 0.7599703 
0.46 0.9618771 0.7599703 
0.44 0.9618897 0.7798882 
0.46 0.9618897 0.7798882 
0.44 0.96193075 0.799682 
0.46 0.96193075 0.799682 
0.5 0.38256648 0.20031792 
0.5 0.38260752 0.2201119 
0.48 0.38256648 0.20031792 
0.48 0.38260752 0.2201119 
0.5 0.3826204 0.24002963 
0.5 0.38262326 0.2600067 
0.48 0.3826204 0.24002963 
0.48 0.38262326 0.2600067 
0.5 0.38262388 0.2800013 
0.5 0.38262388 0.3000002 
0.48 0.38262388 0.2800013 
0.48 0.38262388 0.3000002 
0.5 0.38262394 0.32 
0.5 0.38262394 0.34 
0.48 0.38262394 0.32 
0.48 0.38262394 0.34 
0.5 0.38262394 0.38 
0.48 0.38262394 0.36 
0.48 0.38262394 0.38 
0.5 0.38262394 0.36 
0.5 0.38262394 0.4 
0.5 0.38262394 0.42 
0.48 0.38262394 0.4 
0.48 0.38262394 0.42 
0.5 0.38262394 0.44 
0.5 0.38262394 0.46 
0.48 0.38262394 0.44 
0.48 0.38262394 0.46 
0.5 0.38262394 0.48 
0.5 0.38262394 0.5 
0.48 0.38262394 0.48 
0.48 0.38262394 0.5 
0.48 0.38262394 0.54 
0.5 0.38262394 0.52 
0.5 0.38262394 0.54 
0.48 0.38262394 0.52 
0.5 0.38262394 0.56 
0.5 0.38262394 0.58 
0.48 0.38262394 0.56 
0.48 0.38262394 0.58 
0.5 0.38262394 0.6 
0.5 0.38262394 0.62 
0.48 0.38262394 0.6 
0.48 0.38262394 0.62 
0.5 0.38262394 0.64 
0.5 0.38262394 0.66 
0.48 0.38262394 0.64 
0.48 0.38262394 0.66 
0.5 0.38262394 0.68 
0.5 0.38262388 0.6999999 
0.48 0.38262394 0.68 
0.48 0.38262388 0.6999999 
0.5 0.38262388 0.7199988 
0.48 0.38262388 0.7199988 
0.5 0.38262326 0.73999333 
0.48 0.38262326 0.73999333 
0.5 0.3826204 0.7599703 
0.48 0.3826204 0.7599703 
0.5 0.38260752 0.7798882 
0.48 0.38260752 0.7798882 
0.5 0.38256648 0.79968196 
0.48 0.38256648 0.79968196 
0.5 0.4222782 0.20037179 
0.5 0.42227888 0.2201237 
0.48 0.4222782 0.20037179 
0.48 0.42227888 0.2201237 
0.5 0.40236053 0.20035882 
0.5 0.4023685 0.2201199 
0.48 0.40236053 0.20035882 
0.48 0.4023685 0.2201199 
0.5 0.40237218 0.24003036 
0.5 0.40237314 0.26000658 
0.48 0.40237218 0.24003036 
0.48 0.40237314 0.26000658 
0.5 0.4222798 0.24003123 
0.5 0.42228007 0.26000682 
0.48 0.4222798 0.24003123 
0.48 0.42228007 0.26000682 
0.5 0.40237322 0.28000122 
0.5 0.40237325 0.3000002 
0.48 0.40237322 0.28000122 
0.48 0.40237325 0.3000002 
0.5 0.4222801 0.28000122 
0.5 0.4222801 0.3000002 
0.48 0.4222801 0.28000122 
0.48 0.4222801 0.3000002 
0.5 0.40237325 0.32 
0.5 0.40237325 0.34 
0.48 0.40237325 0.32 
0.48 0.40237325 0.34 
0.5 0.4222801 0.32 
0.5 0.4222801 0.34 
0.48 0.4222801 0.32 
0.48 0.4222801 0.34 
0.5 0.40237325 0.38 
0.48 0.40237325 0.36 
0.48 0.40237325 0.38 
0.5 0.40237325 0.36 
0.48 0.4222801 0.36 
0.48 0.4222801 0.38 
0.5 0.4222801 0.36 
0.5 0.4222801 0.38 
0.5 0.40237325 0.4 
0.5 0.40237325 0.42 
0.48 0.40237325 0.4 
0.48 0.40237325 0.42 
0.5 0.4222801 0.4 
0.5 0.4222801 0.42 
0.48 0.4222801 0.4 
0.48 0.4222801 0.42 
0.5 0.40237325 0.44 
0.5 0.40237325 0.46 
0.48 0.40237325 0.44 
0.48 0.40237325 0.46 
0.5 0.4222801 0.44 
0.5 0.4222801 0.46 
0.48 0.4222801 0.44 
0.48 0.4222801 0.46 
0.5 0.40237325 0.48 
0.5 0.40237325 0.5 
0.48 0.40237325 0.48 
0.48 0.40237325 0.5 
0.5 0.4222801 0.48 
0.5 0.4222801 0.5 
0.48 0.4222801 0.48 
0.48 0.4222801 0.5 
0.48 0.4222801 0.52 
0.48 0.4222801 0.54 
0.5 0.4222801 0.52 
0.5 0.4222801 0.54 
0.5 0.40237325 0.54 
0.48 0.40237325 0.52 
0.48 0.40237325 0.54 
0.5 0.40237325 0.52 
0.5 0.4222801 0.56 
0.5 0.4222801 0.58 
0.48 0.4222801 0.56 
0.48 0.4222801 0.58 
0.5 0.40237325 0.56 
0.5 0.40237325 0.58 
0.48 0.40237325 0.56 
0.48 0.40237325 0.58 
0.5 0.4222801 0.6 
0.5 0.4222801 0.62 
0.48 0.4222801 0.6 
0.48 0.4222801 0.62 
0.5 0.40237325 0.6 
0.5 0.40237325 0.62 
0.48 0.40237325 0.6 
0.48 0.40237325 0.62 
0.5 0.4222801 0.64 
0.5 0.4222801 0.66 
0.48 0.4222801 0.64 
0.48 0.4222801 0.66 
0.5 0.40237325 0.64 
0.5 0.40237325 0.66 
0.48 0.40237325 0.64 
0.48 0.40237325 0.66 
0.5 0.40237325 0.68 
0.5 0.40237325 0.7 
0.48 0.40237325 0.68 
0.48 0.40237325 0.7 
0.5 0.4222801 0.71999884 
0.48 0.4222801 0.71999884 
0.5 0.40237322 0.7199989 
0.48 0.40237322 0.7199989 
0.48 0.4222801 0.68 
0.48 0.4222801 0.7 
0.5 0.4222801 0.68 
0.5 0.4222801 0.7 
0.5 0.42228007 0.7399933 
0.48 0.42228007 0.7399933 
0.5 0.40237314 0.73999333 
0.48 0.40237314 0.73999333 
0.5 0.4222798 0.7599688 
0.48 0.4222798 0.7599688 
0.5 0.40237218 0.7599698 
0.48 0.40237218 0.7599698 
0.5 0.42227888 0.7798765 
0.48 0.42227888 0.7798765 
0.5 0.4222782 0.7996282 
0.48 0.4222782 0.7996282 
0.5 0.4023685 0.77988017 
0.48 0.4023685 0.77988017 
0.5 0.40236053 0.79964095 
0.48 0.40236053 0.79964095 
0.5 0.46224993 0.20037527 
0.5 0.4622499 0.2201247 
0.48 0.46224993 0.20037527 
0.48 0.4622499 0.2201247 
0.5 0.44225544 0.20037471 
0.5 0.44225526 0.22012456 
0.48 0.44225544 0.20037471 
0.48 0.44225526 0.22012456 
0.5 0.46224993 0.24003163 
0.5 0.46224993 0.26000693 
0.48 0.46224993 0.24003163 
0.48 0.46224993 0.26000693 
0.5 0.44225562 0.2600069 
0.5 0.44225547 0.24003157 
0.48 0.44225547 0.24003157 
0.48 0.44225562 0.2600069 
0.5 0.46224993 0.28000125 
0.5 0.46224993 0.3000002 
0.48 0.46224993 0.28000125 
0.48 0.46224993 0.3000002 
0.5 0.44225565 0.28000125 
0.5 0.44225565 0.3000002 
0.48 0.44225565 0.3000002 
0.48 0.44225565 0.28000125 
0.5 0.46224993 0.32 
0.5 0.46224993 0.34 
0.48 0.46224993 0.32 
0.48 0.46224993 0.34 
0.5 0.44225565 0.32 
0.5 0.44225565 0.34 
0.48 0.44225565 0.32 
0.48 0.44225565 0.34 
0.5 0.46224993 0.36 
0.5 0.46224993 0.38 
0.48 0.46224993 0.36 
0.48 0.46224993 0.38 
0.48 0.44225565 0.36 
0.48 0.44225565 0.38 
0.5 0.44225565 0.36 
0.5 0.44225565 0.38 
0.48 0.46224993 0.4 
0.48 0.46224993 0.42 
0.5 0.46224993 0.4 
0.5 0.46224993 0.42 
0.5 0.44225565 0.4 
0.5 0.44225565 0.42 
0.48 0.44225565 0.4 
0.48 0.44225565 0.42 
0.5 0.46224993 0.44 
0.5 0.46224993 0.46 
0.48 0.46224993 0.44 
0.48 0.46224993 0.46 
0.5 0.44225565 0.44 
0.5 0.44225565 0.46 
0.48 0.44225565 0.44 
0.48 0.44225565 0.46 
0.5 0.46224993 0.48 
0.5 0.46224993 0.5 
0.48 0.46224993 0.48 
0.48 0.46224993 0.5 
0.5 0.44225565 0.48 
0.5 0.44225565 0.5 
0.48 0.44225565 0.48 
0.48 0.44225565 0.5 
0.48 0.44225565 0.52 
0.48 0.44225565 0.54 
0.5 0.46224993 0.52 
0.5 0.46224993 0.54 
0.48 0.46224993 0.52 
0.48 0.46224993 0.54 
0.5 0.44225565 0.52 
0.5 0.44225565 0.54 
0.5 0.44225565 0.56 
0.5 0.44225565 0.58 
0.48 0.44225565 0.56 
0.48 0.44225565 0.58 
0.5 0.46224993 0.56 
0.5 0.46224993 0.58 
0.48 0.46224993 0.56 
0.48 0.46224993 0.58 
0.5 0.44225565 0.6 
0.5 0.44225565 0.62 
0.48 0.44225565 0.6 
0.48 0.44225565 0.62 
0.5 0.46224993 0.6 
0.5 0.46224993 0.62 
0.48 0.46224993 0.6 
0.48 0.46224993 0.62 
0.5 0.44225565 0.64 
0.5 0.44225565 0.66 
0.48 0.44225565 0.64 
0.48 0.44225565 0.66 
0.5 0.46224993 0.64 
0.5 0.46224993 0.66 
0.48 0.46224993 0.64 
0.48 0.46224993 0.66 
0.5 0.44225565 0.68 
0.5 0.44225565 0.7 
0.48 0.44225565 0.68 
0.48 0.44225565 0.7 
0.5 0.46224993 0.68 
0.5 0.46224993 0.7 
0.48 0.46224993 0.68 
0.48 0.46224993 0.7 
0.5 0.44225565 0.71999884 
0.48 0.44225565 0.71999884 
0.48 0.46224993 0.71999884 
0.5 0.46224993 0.71999884 
0.5 0.44225562 0.73999316 
0.48 0.44225562 0.73999316 
0.48 0.46224993 0.73999316 
0.5 0.46224993 0.73999316 
0.5 0.44225547 0.75996846 
0.48 0.44225547 0.75996846 
0.5 0.46224993 0.75996846 
0.48 0.46224993 0.75996846 
0.5 0.44225526 0.7798755 
0.48 0.44225526 0.7798755 
0.5 0.44225544 0.79962534 
0.48 0.44225544 0.79962534 
0.5 0.4622499 0.7798754 
0.48 0.4622499 0.7798754 
0.5 0.46224993 0.7996246 
0.48 0.46224993 0.7996246 
0.5 0.48224887 0.20037542 
0.5 0.48224887 0.2201247 
0.48 0.48224887 0.20037542 
0.48 0.48224887 0.2201247 
0.5 0.50224835 0.20037544 
0.5 0.50224835 0.2201247 
0.48 0.50224835 0.20037544 
0.48 0.50224835 0.2201247 
0.5 0.48224887 0.24003163 
0.5 0.48224887 0.26000693 
0.48 0.48224887 0.24003163 
0.48 0.48224887 0.26000693 
0.48 0.50224835 0.24003163 
0.48 0.50224835 0.26000693 
0.5 0.50224835 0.24003163 
0.5 0.50224835 0.26000693 
0.5 0.48224887 0.28000125 
0.5 0.48224887 0.3000002 
0.48 0.48224887 0.28000125 
0.48 0.48224887 0.3000002 
0.5 0.50224835 0.28000125 
0.5 0.50224835 0.3000002 
0.48 0.50224835 0.28000125 
0.48 0.50224835 0.3000002 
0.5 0.48224887 0.32 
0.5 0.48224887 0.34 
0.48 0.48224887 0.32 
0.48 0.48224887 0.34 
0.5 0.50224835 0.32 
0.5 0.50224835 0.34 
0.48 0.50224835 0.32 
0.48 0.50224835 0.34 
0.5 0.48224887 0.36 
0.5 0.48224887 0.38 
0.48 0.48224887 0.36 
0.48 0.48224887 0.38 
0.48 0.50224835 0.36 
0.48 0.50224835 0.38 
0.5 0.50224835 0.36 
0.5 0.50224835 0.38 
0.48 0.48224887 0.4 
0.48 0.48224887 0.42 
0.5 0.48224887 0.4 
0.5 0.48224887 0.42 
0.5 0.50224835 0.4 
0.5 0.50224835 0.42 
0.48 0.50224835 0.4 
0.48 0.50224835 0.42 
0.5 0.48224887 0.44 
0.5 0.48224887 0.46 
0.48 0.48224887 0.44 
0.48 0.48224887 0.46 
0.48 0.50224835 0.44 
0.48 0.50224835 0.46 
0.5 0.50224835 0.44 
0.5 0.50224835 0.46 
0.5 0.48224887 0.48 
0.5 0.48224887 0.5 
0.48 0.48224887 0.48 
0.48 0.48224887 0.5 
0.48 0.50224835 0.48 
0.48 0.50224835 0.5 
0.5 0.50224835 0.48 
0.5 0.50224835 0.5 
0.5 0.48224887 0.52 
0.5 0.48224887 0.54 
0.48 0.48224887 0.52 
0.48 0.48224887 0.54 
0.48 0.50224835 0.52 
0.48 0.50224835 0.54 
0.5 0.50224835 0.52 
0.5 0.50224835 0.54 
0.5 0.48224887 0.56 
0.5 0.48224887 0.58 
0.48 0.48224887 0.56 
0.48 0.48224887 0.58 
0.5 0.50224835 0.56 
0.5 0.50224835 0.58 
0.48 0.50224835 0.56 
0.48 0.50224835 0.58 
0.5 0.48224887 0.6 
0.5 0.48224887 0.62 
0.48 0.48224887 0.6 
0.48 0.48224887 0.62 
0.48 0.50224835 0.6 
0.48 0.50224835 0.62 
0.5 0.50224835 0.6 
0.5 0.50224835 0.62 
0.5 0.48224887 0.64 
0.5 0.48224887 0.66 
0.48 0.48224887 0.64 
0.48 0.48224887 0.66 
0.48 0.50224835 0.64 
0.48 0.50224835 0.66 
0.5 0.50224835 0.64 
0.5 0.50224835 0.66 
0.5 0.48224887 0.68 
0.5 0.48224887 0.7 
0.48 0.48224887 0.68 
0.48 0.48224887 0.7 
0.48 0.50224835 0.68 
0.48 0.50224835 0.7 
0.5 0.50224835 0.68 
0.5 0.50224835 0.7 
0.5 0.50224835 0.71999884 
0.48 0.50224835 0.71999884 
0.5 0.48224887 0.71999884 
0.48 0.48224887 0.71999884 
0.48 0.50224835 0.75996846 
0.5 0.50224835 0.75996846 
0.5 0.48224887 0.75996846 
0.48 0.48224887 0.75996846 
0.5 0.50224835 0.73999316 
0.48 0.50224835 0.73999316 
0.5 0.48224887 0.73999316 
0.48 0.48224887 0.73999316 
0.48 0.50224835 0.7798754 
0.5 0.50224835 0.7798754 
0.48 0.50224835 0.79962456 
0.5 0.50224835 0.79962456 
0.5 0.48224887 0.7798754 
0.48 0.48224887 0.7798754 
0.5 0.48224887 0.79962456 
0.48 0.48224887 0.79962456 
0.48 0.5422483 0.20037544 
0.48 0.5422483 0.2201247 
0.5 0.5422483 0.20037544 
0.5 0.5422483 0.2201247 
0.48 0.5222483 0.20037544 
0.48 0.5222483 0.2201247 
0.5 0.5222483 0.20037544 
0.5 0.5222483 0.2201247 
0.48 0.5422483 0.24003163 
0.48 0.5422483 0.26000693 
0.5 0.5422483 0.24003163 
0.5 0.5422483 0.26000693 
0.48 0.5222483 0.24003163 
0.48 0.5222483 0.26000693 
0.5 0.5222483 0.24003163 
0.5 0.5222483 0.26000693 
0.5 0.5422483 0.28000125 
0.5 0.5422483 0.3000002 
0.48 0.5422483 0.28000125 
0.48 0.5422483 0.3000002 
0.48 0.5222483 0.28000125 
0.48 0.5222483 0.3000002 
0.5 0.5222483 0.28000125 
0.5 0.5222483 0.3000002 
0.48 0.5422483 0.32 
0.48 0.5422483 0.34 
0.5 0.5422483 0.32 
0.5 0.5422483 0.34 
0.48 0.5222483 0.32 
0.48 0.5222483 0.34 
0.5 0.5222483 0.34 
0.5 0.5222483 0.32 
0.48 0.5422483 0.36 
0.48 0.5422483 0.38 
0.5 0.5422483 0.36 
0.5 0.5422483 0.38 
0.48 0.5222483 0.36 
0.48 0.5222483 0.38 
0.5 0.5222483 0.36 
0.5 0.5222483 0.38 
0.48 0.5422483 0.4 
0.48 0.5422483 0.42 
0.5 0.5422483 0.4 
0.5 0.5422483 0.42 
0.48 0.5222483 0.4 
0.48 0.5222483 0.42 
0.5 0.5222483 0.4 
0.5 0.5222483 0.42 
0.48 0.5422483 0.44 
0.48 0.5422483 0.46 
0.5 0.5422483 0.44 
0.5 0.5422483 0.46 
0.48 0.5222483 0.44 
0.48 0.5222483 0.46 
0.5 0.5222483 0.44 
0.5 0.5222483 0.46 
0.48 0.5422483 0.48 
0.48 0.5422483 0.5 
0.5 0.5422483 0.48 
0.5 0.5422483 0.5 
0.48 0.5222483 0.48 
0.48 0.5222483 0.5 
0.5 0.5222483 0.48 
0.5 0.5222483 0.5 
0.48 0.5422483 0.52 
0.48 0.5422483 0.54 
0.5 0.5422483 0.52 
0.5 0.5422483 0.54 
0.48 0.5222483 0.52 
0.48 0.5222483 0.54 
0.5 0.5222483 0.52 
0.5 0.5222483 0.54 
0.48 0.5422483 0.56 
0.48 0.5422483 0.58 
0.5 0.5422483 0.56 
0.5 0.5422483 0.58 
0.48 0.5222483 0.56 
0.48 0.5222483 0.58 
0.5 0.5222483 0.56 
0.5 0.5222483 0.58 
0.48 0.5422483 0.6 
0.48 0.5422483 0.62 
0.5 0.5422483 0.6 
0.5 0.5422483 0.62 
0.48 0.5222483 0.6 
0.48 0.5222483 0.62 
0.5 0.5222483 0.6 
0.5 0.5222483 0.62 
0.48 0.5422483 0.64 
0.48 0.5422483 0.66 
0.5 0.5422483 0.64 
0.5 0.5422483 0.66 
0.48 0.5222483 0.64 
0.48 0.5222483 0.66 
0.5 0.5222483 0.64 
0.5 0.5222483 0.66 
0.48 0.5422483 0.68 
0.48 0.5422483 0.7 
0.5 0.5422483 0.68 
0.5 0.5422483 0.7 
0.48 0.5222483 0.68 
0.48 0.5222483 0.7 
0.5 0.5222483 0.68 
0.5 0.5222483 0.7 
0.5 0.5222483 0.71999884 
0.48 0.5422483 0.71999884 
0.5 0.5422483 0.71999884 
0.48 0.5222483 0.71999884 
0.48 0.5222483 0.75996846 
0.5 0.5222483 0.75996846 
0.5 0.5422483 0.75996846 
0.48 0.5422483 0.75996846 
0.5 0.5222483 0.73999316 
0.48 0.5422483 0.73999316 
0.5 0.5422483 0.73999316 
0.48 0.5222483 0.73999316 
0.48 0.5222483 0.7798754 
0.5 0.5222483 0.7798754 
0.48 0.5222483 0.79962456 
0.5 0.5222483 0.79962456 
0.5 0.5422483 0.7798754 
0.48 0.5422483 0.7798754 
0.48 0.5422483 0.79962456 
0.5 0.5422483 0.79962456 
0.48 0.5622483 0.20037544 
0.48 0.5622483 0.2201247 
0.5 0.5622483 0.20037544 
0.5 0.5622483 0.2201247 
0.48 0.58224833 0.20037544 
0.48 0.58224833 0.2201247 
0.5 0.58224833 0.20037544 
0.5 0.58224833 0.2201247 
0.48 0.5622483 0.24003163 
0.48 0.5622483 0.26000693 
0.5 0.5622483 0.24003163 
0.5 0.5622483 0.26000693 
0.48 0.58224833 0.24003163 
0.48 0.58224833 0.26000693 
0.5 0.58224833 0.24003163 
0.5 0.58224833 0.26000693 
0.48 0.5622483 0.28000125 
0.48 0.5622483 0.3000002 
0.5 0.5622483 0.28000125 
0.5 0.5622483 0.3000002 
0.5 0.58224833 0.28000125 
0.5 0.58224833 0.3000002 
0.48 0.58224833 0.28000125 
0.48 0.58224833 0.3000002 
0.48 0.5622483 0.32 
0.48 0.5622483 0.34 
0.5 0.5622483 0.32 
0.5 0.5622483 0.34 
0.48 0.58224833 0.32 
0.48 0.58224833 0.34 
0.5 0.58224833 0.32 
0.5 0.58224833 0.34 
0.48 0.5622483 0.36 
0.48 0.5622483 0.38 
0.5 0.5622483 0.36 
0.5 0.5622483 0.38 
0.48 0.58224833 0.36 
0.48 0.58224833 0.38 
0.5 0.58224833 0.36 
0.5 0.58224833 0.38 
0.48 0.5622483 0.4 
0.48 0.5622483 0.42 
0.5 0.5622483 0.4 
0.5 0.5622483 0.42 
0.5 0.58224833 0.4 
0.5 0.58224833 0.42 
0.48 0.58224833 0.4 
0.48 0.58224833 0.42 
0.48 0.5622483 0.44 
0.48 0.5622483 0.46 
0.5 0.5622483 0.44 
0.5 0.5622483 0.46 
0.5 0.58224833 0.44 
0.5 0.58224833 0.46 
0.48 0.58224833 0.44 
0.48 0.58224833 0.46 
0.48 0.5622483 0.48 
0.48 0.5622483 0.5 
0.5 0.5622483 0.48 
0.5 0.5622483 0.5 
0.5 0.58224833 0.48 
0.5 0.58224833 0.5 
0.48 0.58224833 0.48 
0.48 0.58224833 0.5 
0.48 0.5622483 0.52 
0.48 0.5622483 0.54 
0.5 0.5622483 0.52 
0.5 0.5622483 0.54 
0.5 0.58224833 0.52 
0.5 0.58224833 0.54 
0.48 0.58224833 0.52 
0.48 0.58224833 0.54 
0.48 0.5622483 0.56 
0.48 0.5622483 0.58 
0.5 0.5622483 0.56 
0.5 0.5622483 0.58 
0.5 0.58224833 0.56 
0.5 0.58224833 0.58 
0.48 0.58224833 0.56 
0.48 0.58224833 0.58 
0.48 0.5622483 0.6 
0.48 0.5622483 0.62 
0.5 0.5622483 0.6 
0.5 0.5622483 0.62 
0.48 0.58224833 0.6 
0.48 0.58224833 0.62 
0.5 0.58224833 0.6 
0.5 0.58224833 0.62 
0.48 0.5622483 0.64 
0.48 0.5622483 0.66 
0.5 0.5622483 0.64 
0.5 0.5622483 0.66 
0.5 0.58224833 0.64 
0.5 0.58224833 0.66 
0.48 0.58224833 0.64 
0.48 0.58224833 0.66 
0.48 0.5622483 0.68 
0.48 0.5622483 0.7 
0.5 0.5622483 0.68 
0.5 0.5622483 0.7 
0.5 0.58224833 0.68 
0.5 0.58224833 0.7 
0.48 0.58224833 0.68 
0.48 0.58224833 0.7 
0.48 0.5622483 0.71999884 
0.5 0.5622483 0.71999884 
0.5 0.58224833 0.71999884 
0.48 0.58224833 0.71999884 
0.48 0.5622483 0.73999316 
0.5 0.5622483 0.73999316 
0.5 0.58224833 0.73999316 
0.48 0.58224833 0.73999316 
0.48 0.5622483 0.75996846 
0.5 0.5622483 0.75996846 
0.48 0.58224833 0.75996846 
0.5 0.58224833 0.75996846 
0.48 0.5622483 0.7798754 
0.5 0.5622483 0.7798754 
0.48 0.5622483 0.79962456 
0.5 0.5622483 0.79962456 
0.48 0.58224833 0.7798754 
0.5 0.58224833 0.7798754 
0.5 0.58224833 0.79962456 
0.48 0.58224833 0.79962456 
0.5 0.6222483 0.20037544 
0.5 0.6222483 0.2201247 
0.48 0.6222483 0.20037544 
0.48 0.6222483 0.2201247 
0.5 0.6022483 0.20037544 
0.5 0.6022483 0.2201247 
0.48 0.6022483 0.20037544 
0.48 0.6022483 0.2201247 
0.5 0.6222483 0.24003163 
0.5 0.6222483 0.26000693 
0.48 0.6222483 0.24003163 
0.48 0.6222483 0.26000693 
0.5 0.6022483 0.24003163 
0.5 0.6022483 0.26000693 
0.48 0.6022483 0.24003163 
0.48 0.6022483 0.26000693 
0.5 0.6222483 0.28000125 
0.5 0.6222483 0.3000002 
0.48 0.6222483 0.28000125 
0.48 0.6222483 0.3000002 
0.5 0.6022483 0.28000125 
0.5 0.6022483 0.3000002 
0.48 0.6022483 0.28000125 
0.48 0.6022483 0.3000002 
0.48 0.6222483 0.34 
0.5 0.6222483 0.32 
0.48 0.6222483 0.32 
0.5 0.6222483 0.34 
0.5 0.6022483 0.32 
0.5 0.6022483 0.34 
0.48 0.6022483 0.32 
0.48 0.6022483 0.34 
0.5 0.6222483 0.36 
0.48 0.6222483 0.36 
0.5 0.6222483 0.38 
0.48 0.6222483 0.38 
0.5 0.6022483 0.36 
0.5 0.6022483 0.38 
0.48 0.6022483 0.36 
0.48 0.6022483 0.38 
0.5 0.6222483 0.4 
0.48 0.6222483 0.4 
0.5 0.6222483 0.42 
0.48 0.6222483 0.42 
0.5 0.6022483 0.42 
0.5 0.6022483 0.4 
0.48 0.6022483 0.4 
0.48 0.6022483 0.42 
0.48 0.6222483 0.44 
0.5 0.6222483 0.44 
0.5 0.6222483 0.46 
0.48 0.6222483 0.46 
0.48 0.6022483 0.46 
0.5 0.6022483 0.44 
0.5 0.6022483 0.46 
0.48 0.6022483 0.44 
0.48 0.6222483 0.48 
0.48 0.6222483 0.5 
0.5 0.6222483 0.48 
0.5 0.6222483 0.5 
0.48 0.6022483 0.48 
0.48 0.6022483 0.5 
0.5 0.6022483 0.48 
0.5 0.6022483 0.5 
0.5 0.6222483 0.52 
0.5 0.6222483 0.54 
0.48 0.6222483 0.52 
0.48 0.6222483 0.54 
0.48 0.6022483 0.52 
0.48 0.6022483 0.54 
0.5 0.6022483 0.52 
0.5 0.6022483 0.54 
0.5 0.6222483 0.56 
0.5 0.6222483 0.58 
0.48 0.6222483 0.56 
0.48 0.6222483 0.58 
0.48 0.6022483 0.56 
0.48 0.6022483 0.58 
0.5 0.6022483 0.56 
0.5 0.6022483 0.58 
0.5 0.6222483 0.6 
0.5 0.6222483 0.62 
0.48 0.6222483 0.6 
0.48 0.6222483 0.62 
0.48 0.6022483 0.6 
0.48 0.6022483 0.62 
0.5 0.6022483 0.6 
0.5 0.6022483 0.62 
0.5 0.6222483 0.64 
0.5 0.6222483 0.66 
0.48 0.6222483 0.64 
0.48 0.6222483 0.66 
0.48 0.6022483 0.64 
0.48 0.6022483 0.66 
0.5 0.6022483 0.64 
0.5 0.6022483 0.66 
0.5 0.6222483 0.68 
0.5 0.6222483 0.7 
0.48 0.6222483 0.68 
0.48 0.6222483 0.7 
0.48 0.6022483 0.68 
0.48 0.6022483 0.7 
0.5 0.6022483 0.68 
0.5 0.6022483 0.7 
0.5 0.6222483 0.71999884 
0.48 0.6222483 0.71999884 
0.48 0.6022483 0.71999884 
0.5 0.6022483 0.71999884 
0.48 0.6222483 0.75996846 
0.5 0.6222483 0.73999316 
0.48 0.6222483 0.73999316 
0.48 0.6022483 0.73999316 
0.5 0.6022483 0.73999316 
0.48 0.6022483 0.75996846 
0.5 0.6022483 0.75996846 
0.5 0.6222483 0.75996846 
0.5 0.6022483 0.7798754 
0.48 0.6022483 0.79962456 
0.5 0.6022483 0.79962456 
0.5 0.6222483 0.7798754 
0.48 0.6222483 0.7798754 
0.48 0.6222483 0.79962456 
0.5 0.6222483 0.79962456 
0.48 0.6022483 0.7798754 
0.5 0.64224833 0.20037544 
0.5 0.64224833 0.2201247 
0.48 0.64224833 0.20037544 
0.48 0.64224833 0.2201247 
0.48 0.6622483 0.20037544 
0.48 0.6622483 0.2201247 
0.5 0.6622483 0.20037544 
0.5 0.6622483 0.2201247 
0.5 0.64224833 0.24003163 
0.5 0.64224833 0.26000693 
0.48 0.64224833 0.24003163 
0.48 0.64224833 0.26000693 
0.48 0.6622483 0.24003163 
0.48 0.6622483 0.26000693 
0.5 0.6622483 0.24003163 
0.5 0.6622483 0.26000693 
0.5 0.64224833 0.28000125 
0.5 0.64224833 0.3000002 
0.48 0.64224833 0.28000125 
0.48 0.64224833 0.3000002 
0.48 0.6622483 0.28000125 
0.48 0.6622483 0.3000002 
0.5 0.6622483 0.28000125 
0.5 0.6622483 0.3000002 
0.48 0.6622483 0.34 
0.5 0.6622483 0.32 
0.5 0.6622483 0.34 
0.48 0.6622483 0.32 
0.5 0.64224833 0.34 
0.48 0.64224833 0.32 
0.48 0.64224833 0.34 
0.5 0.64224833 0.32 
0.5 0.64224833 0.36 
0.5 0.64224833 0.38 
0.48 0.64224833 0.36 
0.48 0.64224833 0.38 
0.48 0.6622483 0.36 
0.48 0.6622483 0.38 
0.5 0.6622483 0.36 
0.5 0.6622483 0.38 
0.5 0.64224833 0.4 
0.5 0.64224833 0.42 
0.48 0.64224833 0.4 
0.48 0.64224833 0.42 
0.48 0.6622483 0.4 
0.48 0.6622483 0.42 
0.5 0.6622483 0.4 
0.5 0.6622483 0.42 
0.5 0.64224833 0.44 
0.48 0.64224833 0.44 
0.48 0.64224833 0.46 
0.5 0.64224833 0.46 
0.48 0.6622483 0.44 
0.48 0.6622483 0.46 
0.5 0.6622483 0.44 
0.5 0.6622483 0.46 
0.48 0.64224833 0.5 
0.48 0.64224833 0.48 
0.5 0.64224833 0.48 
0.5 0.64224833 0.5 
0.48 0.6622483 0.5 
0.5 0.6622483 0.48 
0.5 0.6622483 0.5 
0.48 0.6622483 0.48 
0.48 0.64224833 0.52 
0.48 0.64224833 0.54 
0.5 0.64224833 0.52 
0.5 0.64224833 0.54 
0.5 0.6622483 0.52 
0.5 0.6622483 0.54 
0.48 0.6622483 0.52 
0.48 0.6622483 0.54 
0.48 0.64224833 0.56 
0.48 0.64224833 0.58 
0.5 0.64224833 0.56 
0.5 0.64224833 0.58 
0.5 0.6622483 0.56 
0.5 0.6622483 0.58 
0.48 0.6622483 0.56 
0.48 0.6622483 0.58 
0.48 0.64224833 0.6 
0.48 0.64224833 0.62 
0.5 0.64224833 0.6 
0.5 0.64224833 0.62 
0.5 0.6622483 0.6 
0.5 0.6622483 0.62 
0.48 0.6622483 0.6 
0.48 0.6622483 0.62 
0.48 0.6622483 0.64 
0.48 0.6622483 0.66 
0.5 0.6622483 0.64 
0.5 0.6622483 0.66 
0.48 0.64224833 0.64 
0.48 0.64224833 0.66 
0.5 0.64224833 0.64 
0.5 0.64224833 0.66 
0.5 0.6622483 0.68 
0.5 0.6622483 0.7 
0.48 0.6622483 0.68 
0.48 0.6622483 0.7 
0.48 0.64224833 0.68 
0.48 0.64224833 0.7 
0.5 0.64224833 0.68 
0.5 0.64224833 0.7 
0.5 0.6622483 0.71999884 
0.48 0.6622483 0.71999884 
0.48 0.64224833 0.71999884 
0.5 0.64224833 0.71999884 
0.5 0.6622483 0.73999316 
0.48 0.6622483 0.73999316 
0.48 0.64224833 0.73999316 
0.5 0.64224833 0.73999316 
0.5 0.6622483 0.75996846 
0.48 0.6622483 0.75996846 
0.48 0.64224833 0.75996846 
0.5 0.64224833 0.75996846 
0.5 0.6622483 0.7798754 
0.48 0.6622483 0.7798754 
0.5 0.6622483 0.79962456 
0.48 0.6622483 0.79962456 
0.48 0.64224833 0.7798754 
0.5 0.64224833 0.7798754 
0.5 0.64224833 0.79962456 
0.48 0.64224833 0.79962456 
0.5 0.70224833 0.20037544 
0.5 0.70224833 0.2201247 
0.48 0.70224833 0.20037544 
0.48 0.70224833 0.2201247 
0.5 0.6822483 0.20037544 
0.5 0.6822483 0.2201247 
0.48 0.6822483 0.20037544 
0.48 0.6822483 0.2201247 
0.48 0.70224833 0.24003163 
0.48 0.70224833 0.26000693 
0.5 0.70224833 0.24003163 
0.5 0.70224833 0.26000693 
0.5 0.6822483 0.24003163 
0.5 0.6822483 0.26000693 
0.48 0.6822483 0.24003163 
0.48 0.6822483 0.26000693 
0.48 0.70224833 0.28000125 
0.48 0.70224833 0.3000002 
0.5 0.70224833 0.28000125 
0.5 0.70224833 0.3000002 
0.5 0.6822483 0.28000125 
0.5 0.6822483 0.3000002 
0.48 0.6822483 0.28000125 
0.48 0.6822483 0.3000002 
0.48 0.70224833 0.32 
0.48 0.70224833 0.34 
0.5 0.70224833 0.32 
0.5 0.70224833 0.34 
0.48 0.6822483 0.34 
0.5 0.6822483 0.32 
0.5 0.6822483 0.34 
0.48 0.6822483 0.32 
0.5 0.70224833 0.36 
0.5 0.70224833 0.38 
0.48 0.70224833 0.36 
0.48 0.70224833 0.38 
0.5 0.6822483 0.36 
0.5 0.6822483 0.38 
0.48 0.6822483 0.36 
0.48 0.6822483 0.38 
0.48 0.70224833 0.4 
0.48 0.70224833 0.42 
0.5 0.70224833 0.4 
0.5 0.70224833 0.42 
0.5 0.6822483 0.4 
0.5 0.6822483 0.42 
0.48 0.6822483 0.4 
0.48 0.6822483 0.42 
0.48 0.70224833 0.44 
0.48 0.70224833 0.46 
0.5 0.70224833 0.44 
0.5 0.70224833 0.46 
0.5 0.6822483 0.44 
0.5 0.6822483 0.46 
0.48 0.6822483 0.44 
0.48 0.6822483 0.46 
0.48 0.70224833 0.48 
0.48 0.70224833 0.5 
0.5 0.70224833 0.48 
0.5 0.70224833 0.5 
0.48 0.6822483 0.5 
0.5 0.6822483 0.48 
0.5 0.6822483 0.5 
0.48 0.6822483 0.48 
0.5 0.70224833 0.52 
0.5 0.70224833 0.54 
0.48 0.70224833 0.52 
0.48 0.70224833 0.54 
0.5 0.6822483 0.52 
0.5 0.6822483 0.54 
0.48 0.6822483 0.54 
0.48 0.6822483 0.52 
0.5 0.70224833 0.56 
0.5 0.70224833 0.58 
0.48 0.70224833 0.56 
0.48 0.70224833 0.58 
0.5 0.6822483 0.56 
0.5 0.6822483 0.58 
0.48 0.6822483 0.56 
0.48 0.6822483 0.58 
0.5 0.70224833 0.6 
0.5 0.70224833 0.62 
0.48 0.70224833 0.6 
0.48 0.70224833 0.62 
0.5 0.6822483 0.6 
0.5 0.6822483 0.62 
0.48 0.6822483 0.6 
0.48 0.6822483 0.62 
0.5 0.70224833 0.64 
0.5 0.70224833 0.66 
0.48 0.70224833 0.64 
0.48 0.70224833 0.66 
0.48 0.6822483 0.64 
0.48 0.6822483 0.66 
0.5 0.6822483 0.64 
0.5 0.6822483 0.66 
0.5 0.70224833 0.68 
0.5 0.70224833 0.7 
0.5 0.6822483 0.68 
0.5 0.6822483 0.7 
0.48 0.6822483 0.68 
0.48 0.6822483 0.7 
0.48 0.70224833 0.68 
0.48 0.70224833 0.7 
0.5 0.6822483 0.71999884 
0.48 0.6822483 0.71999884 
0.5 0.70224833 0.71999884 
0.48 0.70224833 0.71999884 
0.5 0.6822483 0.73999316 
0.48 0.6822483 0.73999316 
0.5 0.70224833 0.73999316 
0.48 0.70224833 0.73999316 
0.5 0.6822483 0.75996846 
0.48 0.6822483 0.75996846 
0.5 0.70224833 0.75996846 
0.48 0.70224833 0.75996846 
0.5 0.6822483 0.7798754 
0.48 0.6822483 0.7798754 
0.5 0.6822483 0.79962456 
0.48 0.6822483 0.79962456 
0.5 0.70224833 0.7798754 
0.48 0.70224833 0.7798754 
0.5 0.70224833 0.79962456 
0.48 0.70224833 0.79962456 
0.5 0.7222483 0.20037544 
0.5 0.7222483 0.2201247 
0.48 0.7222483 0.20037544 
0.48 0.7222483 0.2201247 
0.48 0.7422483 0.20037544 
0.48 0.7422483 0.2201247 
0.5 0.7422483 0.20037544 
0.5 0.7422483 0.2201247 
0.5 0.7222483 0.24003163 
0.5 0.7222483 0.26000693 
0.48 0.7222483 0.24003163 
0.48 0.7222483 0.26000693 
0.48 0.7422483 0.24003163 
0.48 0.7422483 0.26000693 
0.5 0.7422483 0.24003163 
0.5 0.7422483 0.26000693 
0.5 0.7222483 0.28000125 
0.5 0.7222483 0.3000002 
0.48 0.7222483 0.28000125 
0.48 0.7222483 0.3000002 
0.48 0.7422483 0.28000125 
0.48 0.7422483 0.3000002 
0.5 0.7422483 0.28000125 
0.5 0.7422483 0.3000002 
0.5 0.7222483 0.32 
0.5 0.7222483 0.34 
0.48 0.7222483 0.32 
0.48 0.7222483 0.34 
0.48 0.7422483 0.32 
0.48 0.7422483 0.34 
0.5 0.7422483 0.32 
0.5 0.7422483 0.34 
0.5 0.7422483 0.36 
0.5 0.7422483 0.38 
0.48 0.7422483 0.36 
0.48 0.7422483 0.38 
0.5 0.7222483 0.36 
0.5 0.7222483 0.38 
0.48 0.7222483 0.36 
0.48 0.7222483 0.38 
0.5 0.7222483 0.4 
0.5 0.7222483 0.42 
0.48 0.7222483 0.4 
0.48 0.7222483 0.42 
0.48 0.7422483 0.4 
0.48 0.7422483 0.42 
0.5 0.7422483 0.4 
0.5 0.7422483 0.42 
0.5 0.7222483 0.44 
0.5 0.7222483 0.46 
0.48 0.7222483 0.44 
0.48 0.7222483 0.46 
0.48 0.7422483 0.44 
0.48 0.7422483 0.46 
0.5 0.7422483 0.44 
0.5 0.7422483 0.46 
0.5 0.7222483 0.48 
0.5 0.7222483 0.5 
0.48 0.7222483 0.48 
0.48 0.7222483 0.5 
0.48 0.7422483 0.48 
0.48 0.7422483 0.5 
0.5 0.7422483 0.48 
0.5 0.7422483 0.5 
0.48 0.7422483 0.52 
0.48 0.7422483 0.54 
0.5 0.7422483 0.52 
0.5 0.7422483 0.54 
0.5 0.7222483 0.52 
0.48 0.7222483 0.52 
0.48 0.7222483 0.54 
0.5 0.7222483 0.54 
0.48 0.7222483 0.58 
0.48 0.7222483 0.56 
0.5 0.7222483 0.56 
0.5 0.7222483 0.58 
0.5 0.7422483 0.56 
0.5 0.7422483 0.58 
0.48 0.7422483 0.56 
0.48 0.7422483 0.58 
